# .PCD v0.7 - Point Cloud Data file format
VERSION 0.7
FIELDS x y z rgba
SIZE 4 4 4 4
TYPE F F F U
COUNT 1 1 1 1
WIDTH 1113
HEIGHT 1
VIEWPOINT 0 0 0 1 0 0 0
POINTS 1113
DATA ascii
-1.3380315 0.19478637 4.9173746 4288716960
-1.3376762 0.19895199 5.0230584 4288716960
-1.3373049 0.20330076 5.1333876 4288716960
-1.3369172 0.20784496 5.2486753 4288716960
-1.3365113 0.21259806 5.3692627 4288716960
-1.3360868 0.21757488 5.4955268 4288716960
-1.3949404 0.23266295 5.8778667 4287861651
-1.3608916 0.23265393 5.877892 4287861651
-1.3268417 0.23264489 5.8779168 4287861651
-1.2927909 0.23263586 5.8779416 4287861651
-1.258739 0.23262683 5.8779664 4287861651
-1.2246863 0.23261778 5.8779912 4287861651
-1.1906326 0.23260875 5.8780165 4287861651
-1.1565779 0.23259974 5.8780417 4287861651
-1.1225222 0.23259069 5.8780661 4287861651
-1.0884657 0.23258166 5.8780913 4287861651
-1.0544081 0.23257262 5.8781157 4287861651
-1.0203497 0.2325636 5.8781409 4287861651
-0.98629022 0.23255455 5.8781657 4287861651
-0.95222974 0.23254552 5.8781905 4287861651
-0.91816843 0.23253648 5.8782153 4287861651
-0.88410616 0.23252746 5.8782406 4287861651
-0.85004282 0.2325184 5.8782649 4287861651
-0.81597859 0.23250939 5.8782902 4287861651
-0.78191346 0.23250036 5.8783154 4287861651
-0.7478472 0.2324913 5.8783398 4287861651
-0.71378016 0.23248227 5.878365 4287861651
-0.67971206 0.23247324 5.8783898 4287861651
-0.64564312 0.23246422 5.8784151 4287861651
-0.61157304 0.23245515 5.8784394 4287861651
-0.57750213 0.23244615 5.8784647 4287861651
-0.54343021 0.2324371 5.8784895 4287861651
-0.50935739 0.23242807 5.8785143 4287861651
-0.4752835 0.23241901 5.8785391 4287861651
-0.44120875 0.23240998 5.8785644 4287861651
-0.40713301 0.23240095 5.8785892 4287861651
-0.37305632 0.23239189 5.8786139 4287861651
-0.33897868 0.23238285 5.8786387 4287861651
-0.30490008 0.23237383 5.8786635 4287861651
-0.2708205 0.23236479 5.8786883 4281742902
-0.23673999 0.23235573 5.8787131 4281742902
-0.084801398 0.096981436 2.4454436 4284900966
-0.070625484 0.09697631 2.4454195 4284900966
-0.056449562 0.096971184 2.4453952 4284900966
-0.042273648 0.096966051 2.4453707 4284900966
-0.028042858 0.096766599 2.4404171 4284900966
-0.013895538 0.096761487 2.4403927 4284900966
0.00025177764 0.096756361 2.4403684 4284900966
0.01439909 0.09675125 2.4403441 4284900966
0.028546397 0.096746124 2.4403198 4284900966
0.042693701 0.096741013 2.4402955 4284900966
0.056840993 0.096735887 2.4402711 4284900966
0.070988297 0.096730776 2.4402468 4284900966
0.085135579 0.09672565 2.4402225 4284900966
0.099282883 0.096720546 2.4401984 4284900966
0.11343016 0.096715428 2.4401741 4284900966
0.12783705 0.096904553 2.4450796 4284900966
0.14201291 0.09689942 2.445055 4284900966
0.15618879 0.096894301 2.4450309 4284900966
0.17036465 0.096889168 2.4450066 4284900966
0.44507176 0.23217489 5.8792114 4287861651
0.47917244 0.23216584 5.8792367 4287861651
0.51327401 0.23215681 5.879261 4287861651
0.54737663 0.23214777 5.8792863 4287861651
0.58148021 0.23213872 5.8793111 4287861651
0.61558467 0.23212969 5.8793364 4287861651
0.64969009 0.23212062 5.8793612 4287861651
0.68379647 0.23211157 5.8793859 4287861651
0.71790385 0.23210253 5.8794107 4287861651
0.75201219 0.23209348 5.8794355 4287861651
0.78612149 0.23208442 5.8794603 4287861651
0.82023174 0.23207538 5.8794856 4287861651
0.854343 0.23206635 5.8795109 4287861651
0.88845509 0.23205729 5.8795357 4287861651
0.92256826 0.23204826 5.8795609 4287861651
0.95668232 0.2320392 5.8795853 4287861651
0.99079746 0.23203017 5.8796105 4287861651
1.0249134 0.23202109 5.8796353 4281742902
1.0590303 0.23201206 5.8796606 4281742902
1.0931482 0.232003 5.8796849 4281742902
1.1272672 0.23199396 5.8797102 4281742902
1.161387 0.2319849 5.8797345 4281742902
1.1955078 0.23197585 5.8797598 4281742902
1.2296294 0.23196679 5.8797846 4281742902
1.2634255 0.23189795 5.8782907 4283519313
1.2628952 0.22571743 5.7214885 4284900966
1.2623924 0.21985801 5.5728331 4284900966
1.2619152 0.2142953 5.431705 4284900966
1.2614615 0.20900731 5.2975469 4284900966
1.2610297 0.20397419 5.1698551 4284900966
1.2606182 0.19917789 5.0481715 4284900966
0.16796207 0.026570709 0.66103184 4284900966
0.16782424 0.025972437 0.6458528 4284900966
0.16769257 0.025401043 0.6313557 4284900966
0.1675667 0.024854757 0.61749566 4284900966
0.16744626 0.024331961 0.6042316 4284900966
0.16733086 0.023831168 0.59152579 4284900966
0.1672197 0.02335095 0.57934201 4284900966
0.16711305 0.022890136 0.5676505 4284900966
0.16701061 0.022447564 0.55642188 4284900966
0.16691215 0.02202218 0.54562926 4284900966
0.16681741 0.021612996 0.53524768 4284900966
0.16672626 0.021219112 0.52525425 4284900966
0.16663843 0.020839676 0.51562744 4284900966
0.16861461 0.020718578 0.51256996 4284900966
0.17157865 0.020716872 0.51254874 4284900966
0.17384546 0.020635225 0.51049435 4284900966
0.17381659 0.020297382 0.50192314 4284900966
1.2555375 0.1399592 3.5457747 4284900966
1.2553426 0.13768573 3.488096 4284900966
1.2551537 0.13548499 3.4322627 4284900966
1.2549708 0.13335359 3.3781881 4284900966
1.2547935 0.13128828 3.3257906 4284900966
1.2546219 0.12928604 3.2749932 4284900966
1.2544553 0.127344 3.2257233 4284900966
1.2542936 0.12545952 3.1779132 4284900966
1.2541367 0.12363006 3.1314991 4284900966
1.2539841 0.12185325 3.0864208 4284900966
1.2538362 0.12012685 3.0426219 4284900966
1.2536922 0.11844875 3.0000477 4284900966
1.253552 0.11681692 2.9586475 4284900966
1.2534158 0.11522952 2.9183748 4284900966
1.2532834 0.11368473 2.8791828 4284900966
1.2531543 0.11218086 2.8410292 4284900966
1.2530288 0.11071631 2.8038733 4284900966
1.2529063 0.10928956 2.7676759 4284900966
1.252787 0.10789914 2.7324007 4284900966
1.2526708 0.10654373 2.6980133 4284900966
1.2525573 0.10522198 2.6644802 4284900966
1.2524467 0.10393266 2.6317701 4284900966
1.2523388 0.10267462 2.599853 4284900966
1.2522334 0.1014467 2.5687001 4284900966
1.2521305 0.10024785 2.5382848 4284900966
1.2520301 0.099077038 2.5085812 4284900966
1.251932 0.097933292 2.479564 4284900966
1.2518361 0.096815698 2.4512103 4284900966
1.2517424 0.095723361 2.4234972 4284900966
1.2516508 0.094655432 2.3964036 4284900966
1.2515612 0.093611121 2.369909 4284900966
1.2514737 0.092589624 2.3439932 4284900966
1.2513878 0.091590211 2.3186378 4284900966
1.2513041 0.090612188 2.2938251 4284900966
1.251222 0.089654855 2.2695374 4284900966
1.2511418 0.08871758 2.2457585 4284900966
1.2510631 0.08779972 2.2224722 4284900966
1.250986 0.086900704 2.1996636 4284900966
1.2509104 0.086019926 2.1773181 4284900966
1.2508365 0.085156865 2.155422 4284900966
1.2507638 0.084310964 2.1339612 4284900966
1.2506928 0.083481751 2.1129236 4284900966
1.250623 0.082668707 2.0922964 4284900966
1.2505547 0.081871368 2.0720677 4284900966
1.2504876 0.081089295 2.0522265 4284900966
0.44466972 0.028984096 0.7243228 4284900966
0.44465429 0.028716508 0.71753407 4284900966
-3.147512 0.23341398 5.1289663 4287861651
-3.1178427 0.23340611 5.1289792 4287861651
-3.0881722 0.23339824 5.1289911 4287861651
-3.058501 0.23339038 5.129004 4287861651
-3.0288293 0.23338252 5.1290164 4287861651
-2.9991572 0.23337466 5.1290293 4287861651
-2.9694839 0.23336677 5.1290417 4287861651
-2.9398098 0.2333589 5.1290541 4287861651
-1.6963234 0.13623993 2.9894288 4284900966
-1.6597726 0.1346789 2.9551418 4284900966
-1.6240506 0.13315323 2.9216321 4284900966
-1.5891289 0.13166177 2.8888731 4284900966
-1.5549811 0.13020338 2.8568404 4284900966
-1.5215832 0.12877704 2.8255117 4284900966
-1.488911 0.12738176 2.7948656 4284900966
-1.4714803 0.12726891 2.7924798 4284900966
-1.4605896 0.12772328 2.8025947 4284900966
-1.4496195 0.12818094 2.8127832 4284900966
-1.4385691 0.12864195 2.8230464 4284900966
-1.4274374 0.12910636 2.8333852 4284900966
-1.4162238 0.12957418 2.8437998 4284900966
-1.4049271 0.13004547 2.8542919 4284900966
-1.3935465 0.13052027 2.8648617 4284900966
-1.382081 0.1309986 2.8755105 4284900966
-1.3705299 0.13148053 2.8862388 4284900966
-1.3588917 0.13196604 2.8970475 4284900966
-1.3471662 0.13245524 2.9079382 4284900966
-1.3353516 0.13294812 2.9189107 4284900966
-1.3234473 0.13344476 2.9299669 4284900966
-1.3114524 0.1339452 2.9411077 4284900966
-1.2993653 0.13444945 2.9523335 4284900966
-1.2871855 0.13495757 2.9636455 4284900966
-1.2749119 0.13546965 2.975045 4284900966
-1.2625432 0.13598566 2.9865329 4284900966
-2.1383388 0.23314643 5.1293926 4287137928
-2.1086442 0.23313855 5.1294045 4287861651
-2.0789495 0.23313066 5.1294174 4287861651
-2.0492535 0.2331228 5.1294298 4287861651
-2.0195572 0.23311494 5.1294427 4287861651
-1.9898601 0.23310705 5.1294546 4287861651
-1.960162 0.23309918 5.1294675 4287861651
-1.9304634 0.23309131 5.1294799 4287861651
-1.900764 0.23308344 5.1294928 4287861651
-1.8710639 0.23307556 5.1295052 4287861651
-1.841363 0.23306768 5.1295176 4287861651
-1.8116614 0.23305981 5.12953 4281808695
-1.7819592 0.23305193 5.1295428 4281742902
-1.752256 0.23304407 5.1295552 4281742902
-1.5945048 0.2157487 4.7481213 4284900966
-1.5669904 0.21573874 4.7480741 4284900966
-1.5394756 0.21572876 4.7480264 4284900966
-1.511961 0.21571884 4.7479796 4284900966
-1.4844463 0.21570887 4.7479324 4284900966
-1.4569317 0.21569893 4.7478852 4284900966
-1.4294171 0.21568899 4.747838 4284900966
-1.4019027 0.21567902 4.7477908 4284900966
-1.374388 0.21566908 4.7477441 4284900966
-1.3468733 0.21565911 4.7476964 4284900966
-1.3383657 0.21874931 4.8160791 4288716960
-1.3380246 0.22333175 4.9174051 4288716960
-1.337669 0.2281113 5.0230904 4288716960
-1.3363371 0.23293379 5.1297307 4288124823
-1.3066231 0.23292589 5.1297426 4287861651
-1.2769084 0.23291805 5.129756 4287861651
-1.2471929 0.23291016 5.1297679 4287861651
-1.2174768 0.23290226 5.1297808 4287861651
-1.1877599 0.23289442 5.1297936 4287861651
-1.1580423 0.23288652 5.129806 4287861651
-1.128324 0.23287864 5.1298184 4287861651
-1.098605 0.23287077 5.1298308 4287861651
-1.0688851 0.23286289 5.1298437 4287861651
-1.0391645 0.23285499 5.1298556 4287861651
-1.0094434 0.23284712 5.129869 4287861651
-0.97972137 0.23283924 5.1298809 4287861651
-0.94999862 0.23283136 5.1298938 4287861651
-0.92027521 0.23282348 5.1299062 4287861651
-0.89055109 0.23281561 5.1299186 4287861651
-0.86082613 0.23280771 5.1299314 4287861651
-0.83110058 0.23279984 5.1299438 4287861651
-0.80137414 0.23279196 5.1299562 4287861651
-0.77164716 0.23278409 5.1299691 4287861651
-0.74191928 0.23277619 5.1299815 4287861651
-0.71219075 0.23276831 5.1299939 4287861651
-0.68246144 0.23276043 5.1300063 4287861651
-0.65273148 0.23275255 5.1300192 4287861651
-0.62300074 0.23274466 5.1300316 4287861651
-0.59326929 0.2327368 5.1300445 4287861651
-0.56353706 0.23272888 5.1300564 4287861651
-0.53380418 0.23272102 5.1300693 4287861651
-0.50407052 0.23271312 5.1300817 4287861651
-0.47433612 0.23270525 5.1300945 4287861651
-0.444601 0.23269738 5.1301074 4287861651
-0.41486514 0.23268948 5.1301193 4287861651
-0.38512859 0.23268162 5.1301322 4287861651
-0.35539126 0.2326737 5.1301446 4287861651
-0.32565325 0.23266585 5.1301575 4287861651
-0.29591447 0.23265794 5.1301694 4287861651
-0.266175 0.23265006 5.1301823 4287861651
-0.23643477 0.23264219 5.1301947 4287861651
-0.20669383 0.23263429 5.1302071 4287861651
-0.084796295 0.11118039 2.4454539 4284900966
-0.070620388 0.11117528 2.4454298 4284900966
-0.056444451 0.11117014 2.4454055 4284900966
-0.042268533 0.11116501 2.4453812 4284900966
-0.028092613 0.11115989 2.4453568 4284900966
-0.013916703 0.11115476 2.4453328 4284900966
0.00025920861 0.11114964 2.4453084 4284900966
0.014435117 0.11114451 2.4452841 4284900966
0.028611019 0.11113937 2.4452598 4284900966
0.042786922 0.11113425 2.4452357 4284900966
0.056962814 0.11112912 2.4452112 4284900966
0.07113871 0.11112399 2.4451869 4284900966
0.085314602 0.11111888 2.4451628 4284900966
0.099490486 0.11111373 2.4451382 4284900966
0.11366639 0.11110862 2.4451141 4284900966
0.12784226 0.11110349 2.4450898 4284900966
0.14201814 0.11109836 2.4450655 4284900966
0.156194 0.11109324 2.4450412 4284900966
0.17036988 0.1110881 2.4450166 4284900966
0.38827837 0.23247656 5.1304584 4287861651
0.41803467 0.23246866 5.1304712 4287861651
0.4477917 0.23246077 5.1304836 4287861651
0.4775494 0.23245288 5.130496 4287861651
0.50730789 0.23244499 5.1305084 4287861651
0.53706706 0.23243712 5.1305213 4287861651
0.56682706 0.23242922 5.1305337 4287861651
0.59658766 0.23242132 5.1305461 4287861651
0.62634903 0.23241344 5.130559 4287861651
0.65611118 0.23240554 5.1305714 4287861651
0.68587404 0.23239765 5.1305838 4287861651
0.71563762 0.23238975 5.1305962 4287861651
0.74540192 0.23238188 5.130609 4287861651
0.77516693 0.23237397 5.1306214 4287861651
0.80493271 0.23236607 5.1306338 4287861651
0.83469933 0.2323582 5.1306472 4287861651
0.86446643 0.23235029 5.1306591 4287861651
0.89423448 0.23234241 5.130672 4287861651
0.92400306 0.23233451 5.1306839 4287861651
0.95377254 0.23232663 5.1306973 4287861651
0.98354262 0.23231871 5.1307092 4287861651
1.0133137 0.23231085 5.130722 4286348412
1.0430852 0.23230295 5.1307344 4281742902
1.0728576 0.23229505 5.1307473 4281742902
1.1026306 0.23228717 5.1307602 4281742902
1.1324044 0.23227926 5.1307721 4281742902
1.162179 0.23227137 5.130785 4281742902
1.1919543 0.23226346 5.1307974 4281742902
1.2217304 0.23225559 5.1308103 4281742902
1.251507 0.2322477 5.1308227 4283321934
1.2606261 0.22850752 5.0481791 4284900966
0.1679119 0.030398218 0.66083264 4284900966
0.16777526 0.029712189 0.64566272 4284900966
0.16764472 0.02905697 0.63117409 4284900966
0.16751996 0.028430544 0.61732209 4284900966
0.16740054 0.027831037 0.60406536 4284900966
0.16728601 0.027256737 0.59136605 4284900966
0.16717578 0.026706047 0.57918882 4284900966
0.16707005 0.026177596 0.56750339 4284900966
0.16696846 0.025670068 0.55628055 4284900966
0.16687085 0.025182245 0.54549348 4284900966
0.16677694 0.024712995 0.53511709 4284900966
0.16668655 0.024261281 0.52512848 4284900966
0.16659945 0.023826135 0.51550627 4284900966
0.16861619 0.023692919 0.5125733 4284900966
0.17158023 0.023691118 0.51255214 4284900966
0.1738462 0.023597455 0.51049536 4284900966
0.17381734 0.023209825 0.5019241 4284900966
1.2555431 0.16056234 3.5457823 4284900966
1.2553478 0.15795384 3.4881034 4284900966
1.255159 0.15542881 3.4322703 4284900966
1.2549762 0.15298332 3.3781958 4284900966
1.2547988 0.15061364 3.3257978 4284900966
1.2546269 0.14831634 3.2750003 4284900966
1.2544602 0.14608815 3.2257307 4284900966
1.2542986 0.14392596 3.1779206 4284900966
1.2541416 0.14182691 3.1315067 4284900966
1.2539889 0.13978826 3.0864282 4284900966
1.2538408 0.13780746 3.0426288 4284900966
1.2536967 0.13588206 3.0000546 4284900966
1.2535566 0.13400979 2.9586549 4284900966
1.2534204 0.13218845 2.9183819 4284900966
1.2532878 0.13041601 2.8791897 4284900966
1.2531587 0.12869054 2.8410361 4284900966
1.2530329 0.12701017 2.80388 4284900966
1.2529107 0.12537315 2.7676828 4284900966
1.2527913 0.12377786 2.7324078 4284900966
1.2526748 0.1222227 2.69802 4284900966
1.2525613 0.12070617 2.6644869 4284900966
1.2524507 0.11922687 2.6317766 4284900966
1.2523427 0.11778343 2.5998595 4284900966
1.2522373 0.11637455 2.5687068 4284900966
1.2521343 0.11499903 2.5382912 4284900966
1.2520339 0.1136557 2.5085876 4284900966
1.251936 0.11234342 2.4795706 4284900966
1.2518399 0.11106113 2.4512167 4284900966
1.2517462 0.10980783 2.4235039 4284900966
1.2516544 0.10858252 2.3964097 4284900966
1.2515649 0.1073843 2.369915 4284900966
1.2514771 0.10621228 2.3439994 4284900966
1.2513913 0.10506558 2.3186438 4284900966
1.2513074 0.10394343 2.2938306 4284900966
1.2512252 0.10284502 2.2695429 4284900966
1.251145 0.10176963 2.2457638 4284900966
1.2510661 0.10071651 2.2224774 4284900966
1.2509891 0.099685013 2.1996691 4284900966
1.2509135 0.098674439 2.1773233 4284900966
1.2508396 0.097684205 2.1554272 4284900966
1.2507669 0.096713655 2.1339667 4284900966
1.2506958 0.095762238 2.1129291 4284900966
1.250626 0.094829373 2.0923018 4284900966
1.2505577 0.093914554 2.0720732 4284900966
1.2504907 0.093017235 2.0522318 4284900966
0.44465169 0.033189625 0.72429371 4284900966
0.44465342 0.032883864 0.71753293 4284900966
-2.7924407 0.23354138 4.5503273 4287861651
-2.766115 0.23353441 4.5503321 4287861651
-2.7397888 0.23352744 4.5503368 4287861651
-2.7134624 0.23352048 4.5503421 4287861651
-2.687135 0.23351347 4.5503464 4287861651
-2.6608071 0.23350652 4.5503516 4287861651
-2.6344786 0.23349951 4.5503559 4287861651
-2.60815 0.23349255 4.5503612 4287861651
-1.696318 0.15358274 2.9894416 4284900966
-1.6597673 0.15182291 2.9551542 4284900966
-1.6240453 0.15010296 2.9216444 4284900966
-1.5891237 0.14842157 2.8888855 4284900966
-1.554976 0.14677744 2.8568523 4284900966
-1.5215772 0.14516938 2.8255222 4284900966
-1.4889053 0.14359643 2.7948761 4284900966
-1.4714755 0.14346999 2.7924922 4284900966
-1.4605849 0.1439832 2.8026071 4284900966
-1.4496145 0.14450015 2.8127956 4284900966
-1.4385642 0.1450209 2.8230591 4284900966
-1.4274325 0.14554545 2.8333976 4284900966
-1.4162189 0.14607389 2.8438125 4284900966
-1.4049222 0.14660624 2.8543046 4284900966
-1.3935416 0.14714253 2.8648744 4284900966
-1.3820761 0.14768285 2.8755231 4284900966
-1.3705246 0.14822717 2.8862514 4284900966
-1.3588867 0.14877561 2.8970604 4284900966
-1.3471611 0.14932817 2.9079509 4284900966
-1.3353465 0.14988492 2.9189239 4284900966
-1.3234422 0.15044591 2.92998 4284900966
-1.311447 0.15101115 2.9411206 4284900966
-1.29936 0.15158074 2.9523463 4284900966
-1.2871804 0.1521547 2.9636588 4284900966
-1.2749068 0.15273309 2.9750583 4284900966
-1.262538 0.15331598 2.9865463 4284900966
-1.897052 0.23330408 4.5504913 4287137928
-1.8707069 0.23329709 4.5504956 4287861651
-1.8443614 0.23329011 4.5505009 4287861651
-1.8180153 0.23328315 4.5505056 4286348412
-1.7916688 0.23327616 4.5505104 4283190348
-1.7653214 0.23326917 4.5505152 4283124555
-1.7389736 0.23326218 4.5505199 4283190348
-1.712625 0.23325519 4.5505247 4283190348
-1.6862761 0.23324822 4.5505295 4283256141
-1.6599265 0.23324125 4.5505347 4283256141
-1.6335765 0.23323427 4.5505395 4283256141
-1.6072257 0.23322727 4.5505438 4283321934
-1.5808743 0.23322028 4.550549 4283256141
-1.5545224 0.23321329 4.5505533 4283782485
-1.5281702 0.2332063 4.5505586 4287861651
-1.5018171 0.23319934 4.5505633 4287861651
-1.4754636 0.23319235 4.5505681 4287861651
-1.4491094 0.23318538 4.5505733 4287861651
-1.4227546 0.23317836 4.5505776 4287861651
-1.3963995 0.2331714 4.5505829 4287861651
-1.3700435 0.23316441 4.5505877 4287861651
-1.3436872 0.23315744 4.5505924 4287861651
-1.3173301 0.23315044 4.5505972 4287861651
-1.2909725 0.23314346 4.550602 4287861651
-1.2646143 0.23313646 4.5506067 4287861651
-1.2382556 0.2331295 4.550612 4287861651
-1.2118962 0.2331225 4.5506163 4287861651
-1.1855365 0.23311551 4.5506215 4287861651
-1.1591759 0.23310851 4.5506258 4287861651
-1.132815 0.23310156 4.550631 4287861651
-1.1064534 0.23309454 4.5506358 4287861651
-1.0800911 0.23308757 4.5506406 4287861651
-1.0537283 0.23308055 4.5506449 4287861651
-1.027365 0.23307359 4.5506501 4287861651
-1.0010012 0.23306659 4.5506549 4287861651
-0.97463667 0.23305961 4.5506597 4287861651
-0.94827163 0.2330526 4.5506644 4287861651
-0.92190599 0.23304564 4.5506692 4287861651
-0.89553982 0.23303863 4.5506744 4287861651
-0.86917305 0.23303168 4.5506792 4287861651
-0.84280562 0.23302464 4.5506835 4287861651
-0.81643778 0.23301768 4.5506887 4287861651
-0.7900694 0.23301071 4.550694 4287861651
-0.76370025 0.23300372 4.5506983 4287861651
-0.73733062 0.23299672 4.5507035 4287861651
-0.71096045 0.23298974 4.5507083 4287861651
-0.68458974 0.23298275 4.5507131 4287861651
-0.65821826 0.23297575 4.5507178 4287861651
-0.63184637 0.23296875 4.5507226 4287861651
-0.60547388 0.23296179 4.5507274 4287861651
-0.57910085 0.23295479 4.5507326 4287861651
-0.5527271 0.23294778 4.5507369 4287861651
-0.52635288 0.23294081 4.5507417 4287861651
-0.4999781 0.23293382 4.5507469 4287861651
-0.47360277 0.23292683 4.5507517 4287861651
-0.44722673 0.23291981 4.550756 4287861651
-0.42085025 0.23291284 4.5507607 4287861651
-0.39447317 0.23290585 4.550766 4287861651
-0.36809552 0.23289886 4.5507708 4287861651
-0.34171721 0.23289184 4.5507751 4287861651
-0.31533846 0.23288488 4.5507808 4287861651
-0.28895903 0.23287788 4.5507851 4287861651
-0.26257908 0.23287089 4.5507898 4287861651
-0.23619854 0.2328639 4.5507951 4287861651
-0.20981742 0.23285691 4.5507998 4287861651
-0.18343572 0.23284991 4.5508041 4287861651
-0.084791206 0.12537937 2.4454644 4284900966
-0.070615277 0.12537424 2.4454401 4284900966
-0.056439344 0.12536912 2.445416 4284900966
-0.042263418 0.12536401 2.4453917 4284900966
-0.028087491 0.12535886 2.4453673 4284900966
-0.013911569 0.12535372 2.4453428 4284900966
0.00026434753 0.12534861 2.4453189 4284900966
0.014440263 0.12534347 2.4452944 4284900966
0.028616175 0.12533836 2.4452701 4284900966
0.042792086 0.12533322 2.445246 4284900966
0.056967989 0.12532809 2.4452217 4284900966
0.071143888 0.12532297 2.4451973 4284900966
0.085319787 0.12531783 2.4451728 4284900966
0.099495679 0.1253127 2.4451487 4284900966
0.11367158 0.12530757 2.4451244 4284900966
0.12784748 0.12530245 2.4451001 4284900966
0.14202335 0.12529732 2.445076 4284900966
0.15619923 0.12529218 2.4450517 4284900966
0.17037511 0.12528706 2.4450271 4284900966
0.3443186 0.23271005 4.5509014 4287861651
0.37071237 0.23270305 4.5509057 4287861651
0.39710668 0.23269606 4.5509105 4287861651
0.42350158 0.23268905 4.5509152 4287861651
0.44989702 0.23268206 4.5509205 4287861651
0.47629312 0.23267508 4.5509253 4287861651
0.50268978 0.23266807 4.55093 4287861651
0.52908695 0.23266108 4.5509348 4287861651
0.55548477 0.23265408 4.55094 4287861651
0.58188301 0.23264709 4.5509448 4287861651
0.60828191 0.23264009 4.5509491 4287861651
0.63468152 0.2326331 4.5509543 4287861651
0.66108149 0.2326261 4.5509591 4287861651
0.68748218 0.23261911 4.5509639 4287861651
0.71388334 0.23261209 4.5509686 4287861651
0.74028522 0.23260511 4.5509734 4287861651
0.76668751 0.23259808 4.5509777 4287861651
0.79309058 0.23259112 4.5509834 4287861651
0.81949395 0.2325841 4.5509877 4287861651
0.84589809 0.2325771 4.5509925 4287861651
0.87230271 0.23257011 4.5509973 4287861651
0.89870805 0.23256311 4.5510025 4287861651
0.92511386 0.23255612 4.5510073 4287861651
0.9515202 0.23254912 4.551012 4287861651
0.97792721 0.23254211 4.5510168 4287861651
1.0043348 0.23253512 4.5510216 4287532686
1.0307429 0.23252812 4.5510268 4281742902
1.0571517 0.23252113 4.5510316 4281742902
1.0835607 0.2325141 4.5510359 4281742902
1.1099707 0.23250714 4.5510411 4281742902
1.1363811 0.23250012 4.5510459 4281742902
0.16786174 0.034223381 0.6606335 4284900966
0.16772628 0.033449706 0.64547265 4284900966
0.16759692 0.032710772 0.63099265 4284900966
0.16747321 0.032004286 0.61714846 4284900966
0.16735484 0.031328157 0.60389924 4284900966
0.16724113 0.030680422 0.59120631 4284900966
0.16713187 0.030059336 0.57903564 4284900966
0.16702703 0.029463328 0.56735635 4284900966
0.16692635 0.028890911 0.55613941 4284900966
0.16682959 0.028340708 0.5453577 4284900966
0.16673648 0.027811451 0.5349865 4284900966
0.16664685 0.027301967 0.52500278 4284900966
0.16656053 0.026811169 0.51538521 4284900966
0.16861774 0.026667275 0.51257664 4284900966
0.17158177 0.02666538 0.51255548 4284900966
0.17384697 0.026559673 0.51049632 4284900966
0.1738181 0.026122259 0.50192511 4284900966
1.2555485 0.1811654 3.5457897 4284900966
1.2553533 0.17822188 3.4881108 4284900966
1.2551644 0.17537257 3.4322777 4284900966
1.2549813 0.17261298 3.3782034 4284900966
1.2548039 0.16993897 3.3258054 4284900966
1.254632 0.16734663 3.2750075 4284900966
1.2544651 0.16483223 3.2257378 4284900966
1.2543035 0.16239236 3.177928 4284900966
1.2541463 0.16002372 3.1315138 4284900966
1.2539939 0.15772323 3.0864356 4284900966
1.2538453 0.15548803 3.0426359 4284900966
1.2537013 0.15331532 3.0000618 4284900966
1.2535611 0.1512026 2.958662 4284900966
1.253425 0.14914733 2.9183888 4284900966
1.2532923 0.14714727 2.8791969 4284900966
1.2531631 0.14520016 2.8410432 4284900966
1.2530373 0.14330398 2.8038867 4284900966
1.2529148 0.14145672 2.7676895 4284900966
1.2527955 0.13965653 2.7324145 4284900966
1.252679 0.13790163 2.6980269 4284900966
1.2525656 0.13619034 2.6644938 4284900966
1.2524548 0.13452104 2.6317832 4284900966
1.2523468 0.13289221 2.5998659 4284900966
1.2522414 0.1313024 2.5687132 4284900966
1.2521384 0.12975021 2.5382979 4284900966
1.252038 0.12823436 2.508594 4284900966
1.2519395 0.12675351 2.4795768 4284900966
1.2518437 0.12530652 2.4512231 4284900966
1.25175 0.12389226 2.4235101 4284900966
1.2516582 0.12250958 2.3964162 4284900966
1.2515686 0.12115748 2.3699214 4284900966
1.2514806 0.11983491 2.3440053 4284900966
1.2513949 0.11854095 2.31865 4284900966
1.2513109 0.11727466 2.2938368 4284900966
1.2512288 0.11603519 2.2695491 4284900966
1.2511482 0.11482166 2.2457697 4284900966
1.2510694 0.11363329 2.2224832 4284900966
1.2509922 0.11246929 2.1996746 4284900966
1.2509165 0.11132893 2.1773288 4284900966
1.2508427 0.11021151 2.1554327 4284900966
1.2507701 0.10911632 2.1339722 4284900966
1.2506988 0.10804269 2.1129344 4284900966
1.2506289 0.10699002 2.0923071 4284900966
1.2505606 0.10595771 2.0720787 4284900966
1.2504935 0.10494514 2.052237 4284900966
0.44463369 0.037394792 0.72426474 4284900966
0.44465256 0.037051175 0.71753174 4284900966
-2.5093756 0.23364297 4.0890326 4287861651
-2.4857163 0.23363668 4.0890322 4287861651
-2.4620569 0.2336304 4.0890322 4287861651
-2.4383974 0.23362416 4.0890322 4287861651
-2.414737 0.2336179 4.0890322 4287861651
-2.3910763 0.23361161 4.0890317 4287861651
-2.367415 0.23360536 4.0890317 4287861651
-2.3437533 0.23359907 4.0890312 4287861651
-1.6963127 0.17092557 2.989454 4284900966
-1.659762 0.16896693 2.9551668 4284900966
-1.6240401 0.16705272 2.9216568 4284900966
-1.5891185 0.16518138 2.8888974 4284900966
-1.5549709 0.16335152 2.8568645 4284900966
-1.5215719 0.16156177 2.8255336 4284900966
-1.4888995 0.15981109 2.7948866 4284900966
-1.4714707 0.15967107 2.7925043 4284900966
-1.46058 0.16024315 2.8026195 4284900966
-1.4496098 0.1608194 2.812808 4284900966
-1.4385592 0.16139986 2.8230712 4284900966
-1.4274276 0.16198459 2.8334103 4284900966
-1.4162139 0.16257364 2.8438251 4284900966
-1.4049171 0.16316703 2.8543169 4284900966
-1.3935366 0.16376483 2.864887 4284900966
-1.3820709 0.16436708 2.8755355 4284900966
-1.3705198 0.16497387 2.8862641 4284900966
-1.3588817 0.1655852 2.8970733 4284900966
-1.3471559 0.16620114 2.907964 4284900966
-1.3353412 0.16682175 2.9189367 4284900966
-1.323437 0.16744706 2.9299932 4284900966
-1.3114419 0.16807716 2.9411337 4284900966
-1.2993548 0.16871203 2.9523594 4284900966
-1.2871752 0.16935185 2.9636717 4284900966
-1.2749014 0.16999656 2.9750714 4284900966
-1.2625326 0.17064629 2.9865594 4284900966
-1.7047131 0.23342974 4.0890265 4287137928
-1.6810384 0.23342349 4.0890265 4287861651
-1.6573633 0.23341723 4.0890265 4287861651
-1.6336877 0.23341092 4.089026 4287861651
-1.6100117 0.23340465 4.089026 4287861651
-1.5863353 0.23339839 4.089026 4287861651
-1.5626583 0.23339212 4.089026 4287861651
-1.538981 0.23338583 4.0890255 4287861651
-1.5153029 0.23337957 4.0890255 4287861651
-1.4916247 0.2333733 4.089025 4287861651
-1.4679459 0.23336704 4.089025 4287861651
-1.4442666 0.23336075 4.0890245 4287861651
-1.4205869 0.23335446 4.0890245 4287861651
-1.3969069 0.23334821 4.0890245 4287861651
-1.3732262 0.23334195 4.0890245 4287861651
-1.3495449 0.23333564 4.0890241 4287861651
-1.3258634 0.23332939 4.0890241 4287861651
-1.3021814 0.23332313 4.0890241 4287861651
-1.278499 0.23331684 4.0890236 4287861651
-1.2548158 0.23331055 4.0890231 4287861651
-1.2311324 0.23330429 4.0890231 4287861651
-1.2074485 0.23329799 4.0890226 4287861651
-1.1837642 0.23329172 4.0890226 4287861651
-1.1600792 0.23328546 4.0890226 4287861651
-1.136394 0.23327917 4.0890226 4287861651
-1.1127083 0.23327288 4.0890222 4287861651
-1.089022 0.23326662 4.0890217 4287861651
-1.0653354 0.23326035 4.0890217 4287861651
-1.0416484 0.23325409 4.0890217 4287861651
-1.0179608 0.2332478 4.0890217 4287861651
-0.99427265 0.23324151 4.0890212 4287861651
-0.97058415 0.23323524 4.0890212 4287861651
-0.94689518 0.23322895 4.0890212 4287861651
-0.92320573 0.23322269 4.0890207 4287861651
-0.89951575 0.2332164 4.0890203 4287861651
-0.87582546 0.23321012 4.0890203 4287861651
-0.85213459 0.23320386 4.0890203 4287861651
-0.82844335 0.2331976 4.0890203 4287861651
-0.80475157 0.2331913 4.0890203 4287861651
-0.78105938 0.23318504 4.0890203 4287861651
-0.7573666 0.23317875 4.0890193 4287861651
-0.73367351 0.23317246 4.0890193 4287861651
-0.70997989 0.2331662 4.0890193 4287861651
-0.68628579 0.23315993 4.0890193 4287861651
-0.66259122 0.23315363 4.0890188 4287861651
-0.63889623 0.23314737 4.0890188 4287861651
-0.61520082 0.23314109 4.0890183 4287861651
-0.59150481 0.23313481 4.0890183 4287861651
-0.56780839 0.2331285 4.0890179 4287861651
-0.54411155 0.23312224 4.0890179 4287861651
-0.52041423 0.23311596 4.0890179 4287861651
-0.4967165 0.2331097 4.0890179 4287861651
-0.47301823 0.23310342 4.0890174 4287861651
-0.44931951 0.23309712 4.0890169 4287861651
-0.42562038 0.23309088 4.0890174 4287861651
-0.40192071 0.23308457 4.0890169 4287861651
-0.37822062 0.23307829 4.0890169 4287861651
-0.35452005 0.23307201 4.0890169 4287861651
-0.33081901 0.23306574 4.0890164 4287861651
-0.30711749 0.23305944 4.089016 4287861651
-0.28341553 0.23305318 4.089016 4287861651
-0.25971314 0.23304689 4.089016 4287861651
-0.23601027 0.23304062 4.089016 4287861651
-0.2123069 0.23303433 4.089015 4287861651
-0.18860312 0.23302805 4.0890155 4287861651
-0.16489881 0.23302175 4.089015 4287861651
-0.084786117 0.13957837 2.4454749 4284900966
-0.07061018 0.13957325 2.4454505 4284900966
-0.056434233 0.13956811 2.445426 4284900966
-0.042258307 0.13956298 2.4454021 4284900966
-0.028082367 0.13955784 2.4453776 4284900966
-0.013906441 0.13955273 2.4453533 4284900966
0.00026948651 0.1395476 2.445329 4284900966
0.014445409 0.13954246 2.4453049 4284900966
0.028621331 0.13953733 2.4452806 4284900966
0.042797249 0.13953221 2.4452562 4284900966
0.056973156 0.13952707 2.4452319 4284900966
0.071149066 0.13952194 2.4452076 4284900966
0.085324973 0.1395168 2.4451833 4284900966
0.09950088 0.13951167 2.4451592 4284900966
0.11367678 0.13950655 2.4451349 4284900966
0.12785268 0.13950141 2.4451103 4284900966
0.14202859 0.13949628 2.4450862 4284900966
0.15620445 0.13949117 2.4450619 4284900966
0.17038035 0.13948604 2.4450376 4284900966
0.309284 0.23289613 4.0890117 4287861651
0.33299804 0.23288986 4.0890117 4287861651
0.35671252 0.23288356 4.0890112 4287861651
0.38042742 0.23287725 4.0890107 4287861651
0.40414289 0.23287101 4.0890112 4287861651
0.42785868 0.23286469 4.0890107 4287861651
0.45157504 0.23285842 4.0890102 4287861651
0.47529182 0.23285215 4.0890102 4287861651
0.49900907 0.23284586 4.0890102 4287861651
0.52272689 0.23283958 4.0890102 4287861651
0.54644501 0.2328333 4.0890098 4287861651
0.57016361 0.23282698 4.0890093 4287861651
0.59388274 0.2328207 4.0890093 4287861651
0.61760235 0.23281443 4.0890093 4287861651
0.64132231 0.23280814 4.0890088 4287861651
0.66504294 0.23280187 4.0890088 4287861651
0.68876392 0.2327956 4.0890088 4287861651
0.71248531 0.23278931 4.0890088 4287861651
0.73620725 0.23278302 4.0890083 4287861651
0.7599296 0.23277675 4.0890083 4287861651
0.78365237 0.23277043 4.0890079 4287861651
0.80737573 0.23276418 4.0890083 4287861651
0.83109945 0.23275785 4.0890074 4287861651
0.85482365 0.23275158 4.0890074 4287861651
0.87854832 0.2327453 4.0890074 4287861651
0.90227354 0.23273902 4.0890074 4287861651
0.9259991 0.23273273 4.0890069 4287861651
0.94972521 0.23272645 4.0890069 4287861651
0.97345167 0.23272012 4.0890064 4287861651
0.99717879 0.23271388 4.0890064 4287795858
1.0209061 0.23270757 4.0890059 4281742902
0.16781163 0.038046215 0.66043454 4284900966
0.16767734 0.037184995 0.64528275 4284900966
0.16754913 0.036362436 0.63081121 4284900966
0.16742651 0.035575986 0.61697501 4284900966
0.16730915 0.034823328 0.60373312 4284900966
0.16719632 0.034102235 0.59104675 4284900966
0.16708802 0.033410825 0.57888258 4284900966
0.16698407 0.032747336 0.56720948 4284900966
0.16688426 0.032110095 0.55599827 4284900966
0.16678834 0.031497579 0.5452221 4284900966
0.16669606 0.030908374 0.53485602 4284900966
0.1666072 0.030341176 0.52487719 4284900966
0.16652162 0.029794779 0.51526421 4284900966
0.1686193 0.029641649 0.51258004 4284900966
0.17158335 0.029639663 0.51255882 4284900966
0.17384775 0.029521881 0.51049733 4284900966
0.17381884 0.029034682 0.50192606 4284900966
1.2555542 0.20176841 3.5457973 4284900966
1.2553588 0.19848989 3.4881186 4284900966
1.2551695 0.19531626 3.4322851 4284900966
1.2549865 0.19224258 3.3782105 4284900966
1.2548091 0.18926424 3.3258128 4284900966
1.2546372 0.18637685 3.2750154 4284900966
1.2544702 0.18357629 3.2257452 4284900966
1.2543083 0.18085869 3.1779351 4284900966
1.2541511 0.17822045 3.131521 4284900966
1.2539985 0.17565815 3.0864427 4284900966
1.2538502 0.17316855 3.0426433 4284900966
1.2537061 0.17074856 3.0000689 4284900966
1.2535657 0.16839534 2.9586689 4284900966
1.2534294 0.16610618 2.9183958 4284900966
1.2532967 0.16387847 2.8792038 4284900966
1.2531675 0.16170976 2.8410501 4284900966
1.2530419 0.15959775 2.803894 4284900966
1.2529191 0.15754025 2.7676964 4284900966
1.2527996 0.15553516 2.7324212 4284900966
1.2526832 0.15358055 2.6980338 4284900966
1.2525697 0.15167448 2.6645005 4284900966
1.2524589 0.14981519 2.6317902 4284900966
1.2523508 0.14800096 2.5998726 4284900966
1.2522454 0.14623021 2.5687199 4284900966
1.2521423 0.14450134 2.5383043 4284900966
1.2520418 0.14281294 2.5086005 4284900966
1.2519435 0.14116359 2.4795833 4284900966
1.2518474 0.13955189 2.4512293 4284900966
1.2517537 0.13797666 2.4235165 4284900966
1.2516618 0.13643663 2.3964224 4284900966
1.2515721 0.13493061 2.3699276 4284900966
1.2514845 0.13345753 2.3440118 4284900966
1.2513984 0.13201627 2.3186562 4284900966
1.2513144 0.13060586 2.2938428 4284900966
1.2512323 0.12922531 2.2695551 4284900966
1.2511518 0.12787369 2.2457759 4284900966
1.2510729 0.12655005 2.2224894 4284900966
1.2509956 0.12525359 2.1996806 4284900966
1.2509201 0.12398343 2.177335 4284900966
1.2508458 0.1227388 2.1554384 4284900966
1.2507731 0.12151894 2.1339777 4284900966
1.2507019 0.12032314 2.1129398 4284900966
1.250632 0.11915066 2.0923126 4284900966
1.2505635 0.11800084 2.072084 4284900966
1.2504965 0.11687303 2.0522425 4284900966
0.44461569 0.041599579 0.72423565 4284900966
0.44465169 0.041218437 0.71753061 4284900966
-2.27843 0.23372586 3.7126744 4287861651
-2.256947 0.23372014 3.7126706 4287861651
-2.2354636 0.23371446 3.7126675 4287861651
-2.2139802 0.23370878 3.7126639 4287861651
-2.1924961 0.23370308 3.7126601 4287861651
-2.1710117 0.23369738 3.7126567 4287861651
-2.1495273 0.23369171 3.7126534 4287861651
-2.1280422 0.23368602 3.7126501 4287861651
-1.6963073 0.18826842 2.9894667 4284900966
-1.6597568 0.186111 2.9551792 4284900966
-1.6240346 0.18400247 2.921669 4284900966
-1.5891131 0.1819412 2.8889096 4284900966
-1.5549657 0.17992562 2.8568766 4284900966
-1.5215666 0.1779542 2.8255453 4284900966
-1.4888936 0.17602576 2.7948968 4284900966
-1.4714658 0.17587219 2.7925167 4284900966
-1.4605751 0.17650314 2.8026319 4284900966
-1.449605 0.17713867 2.8128207 4284900966
-1.4385544 0.17777885 2.8230839 4284900966
-1.4274228 0.17842375 2.8334229 4284900966
-1.4162087 0.17907338 2.8438375 4284900966
-1.4049122 0.17972784 2.8543296 4284900966
-1.3935316 0.18038714 2.8648994 4284900966
-1.382066 0.1810514 2.8755486 4284900966
-1.3705149 0.18172058 2.8862772 4284900966
-1.3588766 0.18239482 2.8970859 4284900966
-1.3471508 0.18307415 2.9079766 4284900966
-1.3353362 0.18375859 2.9189496 4284900966
-1.3234318 0.18444823 2.930006 4284900966
-1.3114368 0.18514316 2.9411471 4284900966
-1.2993497 0.18584339 2.9523728 4284900966
-1.2871698 0.18654901 2.963685 4284900966
-1.2748961 0.18726005 2.9750845 4284900966
-1.2625272 0.18797663 2.9865725 4284900966
-1.5477992 0.23353231 3.7125554 4287137928
-1.5263033 0.23352659 3.7125516 4287861651
-1.5048072 0.2335209 3.712548 4287861651
-1.4833107 0.2335152 3.7125449 4287861651
-1.4618137 0.23350951 3.7125413 4287861651
-1.4403163 0.2335038 3.7125375 4287861651
-1.4188186 0.23349813 3.712534 4287861651
-1.3973206 0.23349245 3.7125309 4287861651
-1.3758222 0.23348674 3.7125273 4287861651
-1.3543231 0.23348105 3.7125237 4287861651
-1.3328239 0.23347534 3.7125201 4287861651
-1.3113244 0.23346967 3.7125168 4287861651
-1.2898245 0.23346396 3.7125132 4287861651
-1.268324 0.23345827 3.7125096 4287861651
-1.2468232 0.23345259 3.7125065 4287861651
-1.2253221 0.23344688 3.7125027 4287861651
-1.2038206 0.23344119 3.7124991 4287861651
-1.1823186 0.23343548 3.7124956 4287861651
-1.1608166 0.2334298 3.7124925 4287861651
-1.1393137 0.23342411 3.7124889 4287861651
-1.1178106 0.23341839 3.7124851 4287861651
-1.0963072 0.23341268 3.7124815 4287861651
-1.0748035 0.23340701 3.7124784 4287861651
-1.0532992 0.23340131 3.7124748 4287861651
-1.0317945 0.23339561 3.712471 4287861651
-1.0102895 0.2333899 3.7124674 4287861651
-0.98878431 0.23338421 3.7124643 4287861651
-0.9672786 0.23337851 3.7124608 4287861651
-0.94577241 0.23337282 3.7124572 4287861651
-0.92426592 0.2333671 3.7124534 4287861651
-0.90275908 0.23336142 3.7124503 4287861651
-0.88125181 0.23335572 3.7124467 4287861651
-0.85974425 0.23335002 3.7124431 4287861651
-0.83823609 0.23334433 3.7124395 4287861651
-0.81672782 0.23333865 3.7124362 4287861651
-0.795219 0.23333293 3.7124326 4287861651
-0.77370977 0.23332722 3.712429 4287861651
-0.75220037 0.23332156 3.7124259 4287861651
-0.73069036 0.23331586 3.7124221 4287861651
-0.70918012 0.23331013 3.7124186 4287861651
-0.68766934 0.23330444 3.712415 4287861651
-0.66615832 0.23329876 3.7124119 4287861651
-0.64464694 0.23329307 3.7124083 4287861651
-0.62313497 0.23328735 3.7124045 4287861651
-0.60162282 0.23328164 3.7124009 4287861651
-0.58011019 0.23327598 3.7123978 4287861651
-0.55859721 0.23327027 3.7123942 4287861651
-0.53708386 0.23326457 3.7123907 4287861651
-0.5155701 0.23325886 3.7123871 4287861651
-0.49405599 0.23325318 3.7123837 4287861651
-0.47254151 0.23324747 3.7123802 4287861651
-0.45102659 0.23324175 3.7123764 4287861651
-0.42951131 0.23323606 3.712373 4287861651
-0.40799567 0.23323035 3.7123697 4287861651
-0.38647962 0.23322466 3.7123661 4287861651
-0.36496317 0.23321895 3.7123625 4287861651
-0.3434464 0.23321325 3.7123587 4287861651
-0.32192925 0.23320757 3.7123556 4287861651
-0.30041167 0.23320186 3.712352 4287861651
-0.27889371 0.23319615 3.7123485 4287861651
-0.25737539 0.23319048 3.7123454 4287861651
-0.23585667 0.23318477 3.7123415 4287861651
-0.21433759 0.23317905 3.712338 4287861651
-0.19281811 0.23317336 3.7123344 4287861651
-0.17129827 0.23316766 3.7123311 4287861651
-0.14977804 0.23316197 3.7123275 4287861651
-0.084781021 0.15377739 2.4454851 4284900966
-0.070605077 0.15377226 2.4454608 4284900966
-0.056429129 0.15376712 2.4454365 4284900966
-0.042253189 0.153762 2.4454122 4284900966
-0.028077245 0.15375687 2.4453881 4284900966
-0.013901309 0.15375175 2.4453638 4284900966
0.00027462546 0.1537466 2.4453394 4284900966
0.014450555 0.15374146 2.4453151 4284900966
0.028626485 0.15373635 2.445291 4284900966
0.042802408 0.15373121 2.4452665 4284900966
0.05697833 0.15372607 2.4452422 4284900966
0.071154244 0.15372095 2.4452181 4284900966
0.085330158 0.1537158 2.4451935 4284900966
0.09950608 0.15371069 2.4451694 4284900966
0.11368197 0.15370555 2.4451451 4284900966
0.12785789 0.15370041 2.4451208 4284900966
0.14203379 0.15369529 2.4450965 4284900966
0.15620968 0.15369016 2.4450724 4284900966
0.1703856 0.15368503 2.4450481 4284900966
0.280707 0.23304792 3.7122574 4287861651
0.30223522 0.23304221 3.7122536 4287861651
0.32376391 0.23303653 3.7122505 4287861651
0.3452929 0.23303083 3.7122469 4287861651
0.3668223 0.2330251 3.7122433 4287861651
0.3883521 0.2330194 3.7122397 4287861651
0.40988234 0.23301372 3.7122366 4287861651
0.43141285 0.23300801 3.7122328 4287861651
0.45294377 0.23300231 3.7122293 4287861651
0.47447509 0.23299658 3.7122257 4287861651
0.49600682 0.23299089 3.7122223 4287861651
0.51753891 0.23298518 3.7122188 4287861651
0.53907138 0.23297949 3.7122152 4287861651
0.56060416 0.23297377 3.7122116 4287861651
0.58213747 0.23296808 3.7122083 4287861651
0.60367107 0.23296237 3.7122047 4287861651
0.6252051 0.23295668 3.7122011 4287861651
0.64673942 0.23295097 3.7121975 4287861651
0.66827422 0.23294526 3.7121942 4287861651
0.68980932 0.23293954 3.7121906 4287861651
0.7113449 0.23293383 3.7121871 4287861651
0.73288077 0.23292813 3.7121835 4287861651
0.75441706 0.23292242 3.7121801 4287861651
0.77595377 0.23291673 3.7121766 4287861651
0.79749084 0.23291102 3.712173 4287861651
0.81902832 0.23290534 3.7121699 4287861651
0.8405661 0.23289962 3.7121661 4287861651
0.8621043 0.2328939 3.7121625 4287861651
0.88364285 0.23288819 3.7121589 4287861651
0.90518188 0.23288251 3.7121558 4287861651
0.92672116 0.23287679 3.712152 4287861651
0.16776153 0.041866716 0.6602357 4284900966
0.16762847 0.04091806 0.64509302 4284900966
0.16750135 0.040011972 0.6306299 4284900966
0.16737984 0.039145656 0.61680162 4284900966
0.16726343 0.038316533 0.60356694 4284900966
0.16715151 0.037522174 0.59088719 4284900966
0.16704415 0.036760524 0.57872963 4284900966
0.16694112 0.036029611 0.56706268 4284900966
0.16684221 0.035327617 0.5558573 4284900966
0.16674709 0.034652848 0.5450865 4284900966
0.16665563 0.034003761 0.53472561 4284900966
0.16656756 0.033378907 0.5247516 4284900966
0.1664827 0.032776959 0.51514322 4284900966
0.16862088 0.032616042 0.51258337 4284900966
0.17158493 0.032613959 0.51256222 4284900966
0.17384851 0.032484081 0.51049829 4284900966
0.17381962 0.031947095 0.50192708 4284900966
1.2555596 0.22237137 3.545805 4284900966
1.2553642 0.21875778 3.488126 4284900966
1.2551751 0.21525988 3.4322927 4284900966
1.2549917 0.21187213 3.3782179 4284900966
1.2548143 0.20858943 3.3258202 4284900966
1.2546421 0.20540698 3.2750225 4284900966
1.2544754 0.20232026 3.2257524 4284900966
1.2543135 0.19932498 3.1779425 4284900966
1.254156 0.19641717 3.1315281 4284900966
1.2540033 0.19359303 3.0864496 4284900966
1.253855 0.19084904 3.0426505 4284900966
1.2537106 0.18818176 3.0000761 4284900966
1.2535704 0.18558808 2.9586761 4284900966
1.2534341 0.183065 2.9184029 4284900966
1.2533011 0.18060963 2.8792107 4284900966
1.2531719 0.1782193 2.8410571 4284900966
1.2530462 0.1758915 2.8039007 4284900966
1.2529234 0.17362374 2.7677033 4284900966
1.2528039 0.17141378 2.7324281 4284900966
1.2526873 0.1692594 2.6980402 4284900966
1.2525737 0.16715856 2.6645069 4284900966
1.252463 0.16510929 2.6317966 4284900966
1.252355 0.16310968 2.5998795 4284900966
1.2522494 0.16115797 2.5687265 4284900966
1.2521461 0.15925245 2.5383108 4284900966
1.2520458 0.1573915 2.5086069 4284900966
1.2519474 0.15557359 2.4795899 4284900966
1.2518513 0.15379725 2.4512358 4284900966
1.2517575 0.15206103 2.4235227 4284900966
1.2516656 0.15036361 2.3964288 4284900966
1.2515759 0.14870374 2.3699338 4284900966
1.2514881 0.14708011 2.3440177 4284900966
1.251402 0.14549159 2.3186624 4284900966
1.2513181 0.14393707 2.2938492 4284900966
1.2512358 0.14241543 2.2695611 4284900966
1.2511553 0.14092568 2.2457819 4284900966
1.2510762 0.13946678 2.2224953 4284900966
1.2509991 0.13803782 2.1996865 4284900966
1.2509234 0.13663788 2.1773407 4284900966
1.2508492 0.13526608 2.1554444 4284900966
1.2507764 0.13392159 2.1339836 4284900966
1.2507051 0.13260357 2.1129458 4284900966
1.2506353 0.13131128 2.0923185 4284900966
1.2505667 0.13004395 2.0720897 4284900966
1.2504995 0.1288009 2.052248 4284900966
0.44459769 0.045804005 0.72420657 4284900966
0.4446508 0.045385662 0.71752942 4284900966
-2.086422 0.23379472 3.3997705 4287861651
-2.0667489 0.23378955 3.399765 4287861651
-2.047075 0.23378432 3.3997593 4287861651
-2.027401 0.23377909 3.3997533 4287861651
-2.0077269 0.23377389 3.3997476 4287861651
-1.9880521 0.23376867 3.3997419 4287861651
-1.9683771 0.23376347 3.3997364 4287861651
-1.9487019 0.23375826 3.3997304 4287861651
-1.6963019 0.2056113 2.9894793 4284900966
-1.6597515 0.20325509 2.9551919 4284900966
-1.6240295 0.20095226 2.9216814 4284900966
-1.5891079 0.19870104 2.8889217 4284900966
-1.5549606 0.19649974 2.8568885 4284900966
-1.5215615 0.19434667 2.8255572 4284900966
-1.4888878 0.1922404 2.7949071 4284900966
-1.4714612 0.19207333 2.7925291 4284900966
-1.4605705 0.19276315 2.8026443 4284900966
-1.4496001 0.19345796 2.8128328 4284900966
-1.4385496 0.19415787 2.8230965 4284900966
-1.4274178 0.19486293 2.8334353 4284900966
-1.416204 0.19557317 2.8438501 4284900966
-1.4049073 0.19628869 2.8543425 4284900966
-1.3935266 0.1970095 2.8649125 4284900966
-1.3820611 0.19773571 2.8755612 4284900966
-1.3705096 0.19846731 2.8862896 4284900966
-1.3588716 0.19920446 2.897099 4284900966
-1.3471459 0.19994716 2.9079897 4284900966
-1.335331 0.20069547 2.9189627 4284900966
-1.3234268 0.20144945 2.9300191 4284900966
-1.3114315 0.20220919 2.9411597 4284900966
-1.2993445 0.20297474 2.9523859 4284900966
-1.2871644 0.20374617 2.9636979 4284900966
-1.2748909 0.20452358 2.9750979 4284900966
-1.262522 0.20530702 2.9865859 4284900966
-1.4173486 0.23361751 3.399575 4287137928
-1.3976645 0.23361233 3.3995695 4287861651
-1.3779801 0.23360711 3.3995638 4287861651
-1.3582952 0.23360188 3.3995581 4287861651
-1.3386098 0.23359665 3.3995521 4287861651
-1.3189245 0.23359147 3.3995466 4287861651
-1.2992386 0.23358624 3.3995407 4287861651
-1.2795525 0.23358104 3.3995349 4287861651
-1.2598659 0.23357581 3.399529 4287861651
-1.2401793 0.23357062 3.3995237 4287861651
-1.2204922 0.23356539 3.3995178 4287861651
-1.2008047 0.23356019 3.3995121 4287861651
-1.1811169 0.23355494 3.3995061 4287861651
-1.1614288 0.23354976 3.3995006 4287861651
-1.1417404 0.23354453 3.3994946 4287861651
-1.1220518 0.23353933 3.3994889 4287861651
-1.1023628 0.2335341 3.3994832 4287861651
-1.0826734 0.2335289 3.3994777 4287861651
-1.0629838 0.23352367 3.3994718 4287861651
-1.0432937 0.23351847 3.399466 4287861651
-1.0236036 0.23351324 3.3994603 4287861651
-1.0039129 0.23350804 3.3994546 4287861651
-0.98422199 0.23350281 3.3994486 4287861651
-0.96453077 0.23349759 3.3994429 4287861651
-0.94483912 0.23349239 3.3994374 4287861651
-0.92514729 0.23348717 3.3994317 4287861651
-0.90545499 0.23348194 3.3994257 4287861651
-0.88576245 0.23347674 3.39942 4287861651
-0.86606961 0.23347153 3.3994143 4287861651
-0.84637642 0.2334663 3.3994086 4287861651
-0.82668293 0.23346107 3.3994026 4287861651
-0.80698901 0.23345585 3.3993967 4287861651
-0.78729492 0.23345065 3.3993912 4287861651
-0.76760054 0.23344545 3.3993855 4287861651
-0.74790561 0.23344022 3.3993797 4287861651
-0.72821057 0.233435 3.399374 4287861651
-0.70851523 0.2334298 3.3993683 4287861651
-0.68881941 0.23342457 3.3993626 4287861651
-0.66912335 0.23341934 3.3993566 4287861651
-0.649427 0.23341414 3.3993509 4287861651
-0.6297304 0.23340894 3.3993454 4287861651
-0.61003327 0.23340371 3.3993394 4287861651
-0.59033591 0.23339848 3.3993335 4287861651
-0.5706383 0.23339327 3.3993278 4287861651
-0.55094028 0.23338807 3.3993223 4287861651
-0.53124195 0.23338285 3.3993163 4287861651
-0.51154339 0.23337762 3.3993106 4287861651
-0.49184439 0.23337241 3.3993051 4287861651
-0.47214514 0.2333672 3.3992994 4287861651
-0.45244557 0.23336197 3.3992934 4287861651
-0.43274567 0.23335674 3.3992877 4287861651
-0.41304544 0.23335156 3.3992822 4287861651
-0.39334491 0.23334633 3.3992763 4287861651
-0.37364399 0.2333411 3.3992703 4287861651
-0.35394284 0.23333588 3.3992646 4287861651
-0.33424133 0.23333067 3.3992591 4287861651
-0.31453949 0.23332544 3.3992531 4287861651
-0.29483736 0.23332024 3.3992474 4287861651
-0.27513486 0.23331501 3.3992414 4287861651
-0.25543213 0.23330979 3.399236 4287861651
-0.23572899 0.23330458 3.39923 4287861651
-0.21602558 0.23329936 3.3992243 4287861651
-0.19632182 0.23329413 3.3992183 4287861651
-0.17661776 0.23328891 3.3992128 4287861651
-0.15691338 0.2332837 3.3992071 4287861651
-0.13720867 0.23327847 3.3992012 4284900966
-0.084775932 0.16797641 2.4454954 4284900966
-0.070599981 0.16797128 2.4454713 4284900966
